ply
format ascii 1.0
comment VCGLIB generated
element vertex 694
property float x
property float y
property float z
property float nx
property float ny
property float nz
element face 0
property list uchar int vertex_indices
end_header
2.0 12.9985 -2.29198 -2.836257707251571e-05 0.1736649002261867 0.984804803819007
1.0 13.0469 -2.30053 2.1881262292156984e-05 0.17365231968574515 0.9848070224104671
2.0 13.0283 -2.29724 -4.0407724409245874e-05 0.17370110802227792 0.984798417666808
3.0 14.8952 -2.62643 -0.00018120261771396574 -0.7228775368996971 0.6909761456167921
3.0 14.0828 -2.48317 7.674097577877041e-05 0.8190489632500427 0.5737236180512817
3.0 14.7984 -2.60935 -4.148825770437545e-05 0.17367048901396762 0.9848038177852347
3.0 14.1793 -2.50019 -3.3180730136074116e-05 0.1736907030493071 0.9848002531342468
3.0 14.6991 -2.59185 1.0876725959488674e-05 0.17364762411275977 0.9848078505585192
3.0 14.2773 -2.51748 -3.525739558275363e-06 0.17366662633661575 0.9848044998294979
3.0 14.5933 -2.57319 -4.58238575159026e-05 0.17361552514134262 0.9848135089092097
3.0 14.379 -2.53541 -1.2314335034255533e-05 0.1736497236585133 0.9848074803339377
3.0 14.4896 -2.55491 -7.110133340838114e-05 0.17364226636176036 0.9848087927498169
3.0 14.0828 -2.48317 1.996700708024905e-05 0.6907664045723569 0.7230779860537159
3.0 13.4279 -2.3677 -0.8230896088633046 0.09856427155722942 0.5592929287534797
3.0 13.2262 -2.33214 -0.09012374529215268 0.6827032892785191 0.7251164936358888
3.0 13.3246 -2.34948 7.645899474029459e-05 0.17364943465094068 0.9848075284031041
3.0 13.4279 -2.3677 3.9752624806077246e-05 0.1736398640399889 0.9848092180904396
3.0 13.211 -2.32945 -0.11880000068656203 0.8081945776470779 0.5768085336563028
2.0 13.0807 -2.30648 -0.5547205434705399 0.14449126217457478 0.8193945287875353
2.0 13.0725 -2.30504 -2.9587427755131348e-05 0.17362604917880753 0.9848116541609073
2.0 13.0806 -2.30646 -2.2257418232948173e-05 0.17368278760135664 0.9848016494683737
2.0 13.0598 -2.3028 5.315113817340972e-05 0.17363217967111502 0.9848105723222178
2.0 13.0494 -2.30096 -1.5657751685750824e-05 0.17364645127078002 0.9848080572963949
2.0 13.0617 -2.30314 -4.426559855554601e-05 0.17357779629450382 0.9848201595591454
2.0 13.0683 -2.3043 1.9052428990400735e-05 0.17359576005507366 0.9848169940287923
2.0 13.0968 -2.30931 4.418432852589419e-05 0.17367759946811173 0.9848025637104827
1.0 13.1644 -2.32124 0.8320410537677796 0.09635929674341812 0.5462806703299292
2.0 13.1235 -2.31403 -2.4021208161280746e-05 0.1737105404589396 0.9847967544404503
1.0 13.1646 -2.32127 -3.344595684910708e-06 0.1736378343176575 0.9848095767620699
2.0 13.1445 -2.31773 1.884136499568272e-05 0.17362504311195553 0.9848118317980215
3.0 15.2005 -2.68026 -0.5733066499677282 -0.46309695673828905 0.6759147089407924
3.0 15.0987 -2.66232 -0.5486298736768331 0.14518761713335476 0.823362506761439
3.0 14.997 -2.64437 -0.8228800575980425 0.09850282331810106 0.559612012563888
3.0 14.8952 -2.62643 3.993784757101781e-05 -0.5733991251162142 0.8192761693842489
3.0 13.5215 -2.3842 -0.6988828504038731 0.12418734026043457 0.7043722495459318
3.0 14.7977 -2.60924 -9.062300398600867e-06 0.17367797946261057 0.9848024976449135
3.0 14.1787 -2.50009 1.059006762595364e-05 0.17369115538755964 0.9848001738565977
3.0 14.6987 -2.59177 -3.3016925927862354e-05 0.17362637022803193 0.9848115974496446
3.0 14.2754 -2.51714 9.744958205213597e-06 0.17362616804219197 0.9848116336010762
3.0 14.5977 -2.57398 -4.303783936262784e-05 0.17360887303736422 0.9848146817297357
3.0 14.3738 -2.53448 3.100448297420255e-05 0.17366646596824556 0.9848045276281087
3.0 14.4783 -2.55292 3.0957866217381096e-05 0.17369798677312398 0.9847989685375255
3.0 13.615 -2.40069 -0.6988828503128305 0.12420591807479135 0.704368973943211
3.0 13.7086 -2.41719 -0.6988828504038731 0.12418734026043635 0.7043722495459315
3.0 13.8021 -2.43368 -0.6988828502549821 0.12424884885686852 0.7043614023902895
3.0 13.8956 -2.45018 -0.6988838279984988 0.1242291596688652 0.7043639051301057
3.0 13.9892 -2.46667 -0.6988833378780667 0.12412099123428773 0.7043834606032641
3.0 14.1784 -2.50003 -2.333844262824978e-06 0.1736880480297343 0.9848007219565661
3.0 14.0828 -2.48317 -0.4050345778528763 0.5412658041329312 0.7368706263787921
3.0 13.5215 -2.3842 -3.163440909271599e-05 0.17365200857356333 0.9848070770042381
3.0 13.3111 -2.3471 -7.0732354294978995e-06 0.1736468736103115 0.9848079829262828
3.0 13.4174 -2.36584 -4.25547307679233e-05 0.17367689236760145 0.9848026884846667
3.0 13.5214 -2.38419 -2.845866111956802e-05 0.1736340381583336 0.9848102456732135
2.0 13.2945 -2.34417 3.286332616220398e-06 0.17371879079143243 0.9847952993973735
2.0 13.1952 -2.32666 -0.4650961786337335 0.5224426087593453 0.7146602445729214
2.0 13.1778 -2.32361 -4.063699087570798e-05 0.17360441585736175 0.9848154675590038
2.0 13.1318 -2.31549 5.306303356431479e-05 0.17360291137061246 0.9848157321793564
2.0 13.1613 -2.3207 2.3046165248488954e-05 0.173633465605747 0.9848103467625694
2.0 13.1031 -2.31043 2.0072353550042927e-05 0.17354092074105665 0.9848266590753151
2.0 13.1376 -2.3165 -1.382518426040952e-05 0.17358969119181364 0.98481806386804
2.0 13.1729 -2.32275 -1.4456094828070138e-05 0.1737032322501143 0.9847980437109348
2.0 13.2042 -2.32826 5.055123645184244e-06 0.17365150685158454 0.9848071659683534
1.0 13.2686 -2.33962 0.7070827050454365 0.12279308876240498 0.6963877551894607
2.0 13.2344 -2.33359 1.55983769841792e-05 0.1736246988451914 0.984811892549845
1.0 13.2687 -2.33963 -4.790371901161442e-05 0.17363397912903522 0.9848102553269089
2.0 13.2575 -2.33765 3.8697949886534385e-05 0.17362527686383744 0.9848117900068137
3.0 15.2005 -2.68026 9.974635846536202e-05 -0.5747544470459056 0.8183259226320642
3.0 14.8952 -2.62643 -0.34556151644378214 -0.18886585123293462 0.9191936295422921
3.0 15.1041 -2.66325 2.290406807493223e-05 0.17363053670535 0.9848108631604424
3.0 14.997 -2.64437 -1.541905714605978e-05 0.17363922278450047 0.984809331836903
3.0 14.8952 -2.62643 5.689498424478768e-06 0.17364392568265144 0.9848085027258586
3.0 15.2005 -2.68026 -0.00010371276150430093 -0.5748199762831762 0.8182798935018946
2.0 15.2005 -2.68026 0.00017492532292648482 -0.5748281010142795 0.8182741739083844
3.0 14.7966 -2.60904 1.2181523770081594e-05 0.1736768495253783 0.9848026968842792
3.0 13.615 -2.40069 2.133457755974388e-05 0.17361425269313813 0.9848137340668228
3.0 14.6955 -2.59122 -2.4637092094880893e-05 0.17362386488918974 0.9848120393932815
3.0 14.2744 -2.51696 1.602852925103974e-05 0.17365716085457475 0.9848061688611697
3.0 14.5955 -2.57358 7.813737258367413e-05 0.17367507139064178 0.9848030074446394
3.0 14.3711 -2.53401 -3.3649456847616326e-05 0.1736537859597912 0.9848067635275182
3.0 14.4707 -2.55158 3.169135679840683e-05 0.1736622970055098 0.984805262777585
3.0 13.7086 -2.41719 2.5412207164991494e-05 0.1736572358762325 0.9848061554346856
3.0 13.8021 -2.43368 -4.858841126269253e-05 0.1737641801973714 0.9847872903929569
3.0 13.8956 -2.45018 2.432227673230691e-05 0.17359338556503065 0.9848174124661371
3.0 13.9892 -2.46667 -2.5373618034999642e-06 0.17359310106163645 0.9848174629124761
3.0 14.0828 -2.48317 -4.643194843161839e-05 0.1736634723365214 0.9848050549322421
3.0 14.274 -2.51689 2.85367563879811e-06 0.17365369595216562 0.984806779969558
3.0 14.1783 -2.50002 -4.428663281353797e-06 0.17366433624327518 0.9848049036725851
3.0 13.615 -2.40068 -1.6947199914410884e-05 0.17359557378262 0.9848170269018887
2.0 13.4102 -2.36459 -6.408467219859364e-05 0.17368986191971889 0.9848003999590291
2.0 13.5228 -2.38444 -2.5286536813992345e-05 0.17364196143305827 0.9848088487570933
2.0 13.6148 -2.40066 -1.7848494325758064e-05 0.1736039979580979 0.9848155419033536
2.0 13.4033 -2.36337 3.294990266572133e-05 0.17368164032621086 0.984801851505114
2.0 13.2773 -2.34114 -4.5710281247068455e-05 0.17363040954949915 0.9848108847846085
2.0 13.2613 -2.33832 1.537703435792301e-05 0.1736090502058891 0.9848146513177777
2.0 13.2249 -2.33191 -2.7194073831333802e-05 0.17368507205451483 0.9848012464481858
2.0 13.2903 -2.34344 8.140588217486838e-06 0.17361077738179792 0.9848143469256623
2.0 13.3187 -2.34844 -5.125622665987823e-06 0.17363542058296969 0.9848100023317713
1.0 13.3729 -2.358 0.7070979420338481 0.1227516666704299 0.696379586648782
2.0 13.3444 -2.35298 2.649904923126228e-05 0.17361882850013535 0.9848129272547356
1.0 13.3729 -2.358 8.647457059254827e-06 0.1736669463045136 0.9848044433726356
2.0 13.3622 -2.35611 -7.697331975903824e-06 0.17366263103043347 0.98480520435482
3.0 15.1056 -2.66352 2.0962185531051063e-05 0.1736450821884638 0.9848082986004679
3.0 14.7947 -2.6087 -2.7299225660414285e-05 0.17360760958190702 0.9848149050202318
3.0 14.9123 -2.62944 -6.641488720966724e-06 0.17363914597437888 0.984809345478189
3.0 15.0079 -2.64631 1.2182940155949522e-05 0.17362561263584703 0.9848117314940977
2.0 14.7968 -2.60908 1.4726315235688697e-05 0.17365367311183297 0.9848067838910861
2.0 15.1056 -2.66352 0.0 0.1737142949200822 0.98479609246809
2.0 15.2005 -2.68026 -5.54634363144735e-05 -0.5749672408342854 0.8181764289511254
2.0 15.1056 -2.66352 0.0 0.1737142949200822 0.98479609246809
3.0 14.6936 -2.59089 2.080692205573866e-05 0.17366333189438588 0.9848050805730099
3.0 13.7085 -2.41717 -8.9244692416043e-05 0.17373902525797383 0.9847917257663135
3.0 14.5962 -2.5737 2.0245895419803944e-05 0.17372728114749686 0.9847938014504368
3.0 14.37 -2.53382 4.446101157860778e-06 0.173642613853636 0.9848087340363657
3.0 14.4831 -2.55375 2.479966686019374e-05 0.1736236685851899 0.9848120739978753
3.0 13.8019 -2.43366 -1.6970695572723248e-05 0.17368427672460723 0.9848013869459392
3.0 13.8954 -2.45013 4.9410394111376214e-05 0.17358707238697704 0.9848185243275693
3.0 13.9887 -2.46659 -4.49941012068036e-05 0.17366363636588067 0.9848050260735423
2.0 14.3739 -2.53451 -6.727372338289458e-06 0.17364300575843056 0.9848086649222376
3.0 14.0822 -2.48307 -2.4131081253715622e-05 0.17361394418312073 0.9848137883899023
2.0 14.2744 -2.51696 -2.8220727929187946e-05 0.1736984894123762 0.9847988799645586
3.0 14.1779 -2.49994 3.7273483652490575e-05 0.17363900600702886 0.984809369473899
2.0 13.7082 -2.41713 5.962696810811091e-05 0.17368438165246927 0.9848013667814562
2.0 13.5387 -2.38724 5.535935004419341e-05 0.17358000931335102 0.9848197689435969
2.0 13.6255 -2.40253 5.609936438304792e-05 0.17358474195525814 0.9848189347353085
2.0 13.7079 -2.41706 -1.2853415798707763e-05 0.17373265370685612 0.9847928537874162
2.0 13.5631 -2.39154 -2.056082287919409e-05 0.17362607245431963 0.9848116502871703
2.0 13.4108 -2.36468 4.804506624209524e-05 0.17365167186906427 0.9848071357117344
2.0 13.4218 -2.36662 -2.786484537309438e-05 0.17364703038463908 0.9848079549141278
2.0 13.4367 -2.36926 3.1773260238176554e-06 0.17367056823507512 0.9848038046833546
2.0 13.4567 -2.37278 2.3302526720032023e-05 0.17366193516837664 0.9848053268187408
1.0 13.4771 -2.37637 0.799647033339774 0.12352772545506589 0.5876270272160702
2.0 13.47 -2.37512 9.512844177382204e-06 0.17364686034254428 0.9848079852451861
1.0 13.4796 -2.37682 4.612253071263658e-05 0.17365728147631188 0.9848061466415455
2.0 13.4742 -2.37587 -3.605007933181187e-05 0.17367665039729513 0.9848027314173979
2.0 15.0107 -2.64678 6.107051774440271e-05 0.17359139886315417 0.9848177610660386
2.0 14.6908 -2.59038 4.468168181830239e-05 0.17368524864616094 0.9848012146653093
2.0 14.8165 -2.61255 -2.9939643463783236e-05 0.17367940831653983 0.98480224524035
2.0 14.9157 -2.63005 -4.0803659600784354e-05 0.1735808051929066 0.9848196293756759
2.0 14.7132 -2.59433 -2.1184965666059166e-05 0.17368851948018765 0.984800638582235
2.0 15.2005 -2.68026 -3.834406766874922e-05 -0.5748857739583164 0.8182336740993247
2.0 15.0107 -2.64678 0.0 0.1735554997992747 0.9848240901244363
2.0 15.1056 -2.66352 0.0 0.17371429492008228 0.98479609246809
2.0 15.0107 -2.64678 0.0 0.17357534943634492 0.984820591817642
2.0 14.6056 -2.57536 -1.612858710420441e-05 0.17365179721713825 0.9848071146489178
2.0 13.8015 -2.43358 3.368325528630095e-05 0.17363060599092484 0.9848108506351169
2.0 14.4734 -2.55205 -4.5463820157257174e-05 0.1736011099007355 0.9848160501201603
2.0 13.8946 -2.44999 -5.0100493957776725e-05 0.17367838752601183 0.984802424446805
2.0 14.4323 -2.54481 6.20801712129233e-05 0.17364942598637773 0.9848075309422922
2.0 13.9875 -2.46638 1.734613365205122e-05 0.17363978183104817 0.9848092332349335
2.0 14.374 -2.53452 2.6476848795842313e-05 0.17369121284941008 0.9848001634229543
2.0 14.0812 -2.4829 3.9639054881984704e-05 0.1736144240117897 0.9848137032981414
2.0 14.2734 -2.51679 8.551230574082942e-06 0.17366768794057513 0.9848043125881666
2.0 14.1775 -2.49987 -1.6532283426567433e-05 0.1736549053618448 0.9848065665756156
2.0 13.8007 -2.43344 -1.5200828333650301e-05 0.1737224978817469 0.9847946453442268
2.0 13.6435 -2.40571 -0.00013005047070225022 0.1736930540783424 0.9847998304487126
2.0 13.7141 -2.41817 -7.811858732765496e-06 0.17368043689832463 0.9848020642635666
2.0 13.8123 -2.43548 6.889196622209006e-05 0.17369143765192369 0.9848001217202935
2.0 13.6604 -2.4087 -2.190244634174767e-05 0.17362819250924094 0.9848112764820764
2.0 13.6064 -2.39917 1.2202828508074571e-05 0.1736842149554967 0.9848013979104537
2.0 13.5862 -2.39562 -1.1779575811344862e-05 0.17363600747129027 0.9848098987980735
2.0 13.5899 -2.39627 4.1101515357751427e-05 0.17361600036657976 0.9848134253387173
1.0 13.5735 -2.39337 0.4445862677154062 0.1985214783001564 0.8734599436793915
2.0 13.5861 -2.39559 -1.1951483528445249e-05 0.1736232287479003 0.9848121517814027
1.0 13.5834 -2.39512 3.706982956198668e-05 0.17362443931630836 0.9848119377312226
2.0 13.586 -2.39558 -2.7370458206522035e-05 0.17362982822097403 0.9848109879580006
2.0 15.2005 -2.68026 -2.9806069576433762e-05 -0.5748271625588828 0.8182748513159268
2.0 15.2005 -2.68026 -2.5542640118496926e-05 -0.5747799244080158 0.8183080335943727
2.0 15.2005 -2.68026 -2.1287985127953403e-05 -0.5747398692248505 0.8183361670305325
2.0 14.9157 -2.63005 0.0 0.17360313880977832 0.9848156935159963
2.0 14.6242 -2.57864 1.1187486701819436e-05 0.17363275179614704 0.9848104728213128
2.0 14.7259 -2.59658 -4.044924343712418e-05 0.17367943947273334 0.9848022393700655
2.0 14.8208 -2.61331 -7.13930092969938e-06 0.17367706796183435 0.9848026584109179
2.0 14.6287 -2.57943 -3.460289503298736e-05 0.17365499906933712 0.9848065495826417
2.0 15.1056 -2.66352 0.0 0.17371429492008225 0.98479609246809
2.0 14.9157 -2.63005 0.0 0.17357534943634872 0.9848205918176414
2.0 15.0107 -2.64678 0.0 0.17357534943634495 0.984820591817642
2.0 14.9157 -2.63005 0.0 0.17357534943634872 0.9848205918176414
2.0 14.5164 -2.55963 3.076254021937054e-06 0.1736511757868328 0.9848072243532676
2.0 13.8933 -2.44977 -2.4383100839191093e-05 0.1736119642578894 0.9848141374249162
2.0 14.4512 -2.54813 0.00010329572612192589 0.17360035856403677 0.9848161781959265
2.0 13.9856 -2.46603 -3.53621762589915e-06 0.17359337743823458 0.984817414192642
2.0 14.3797 -2.53553 2.7612349517173185e-05 0.1736355785756775 0.9848099741017289
2.0 14.0799 -2.48266 4.053288337761661e-06 0.17363364148563998 0.9848103160142094
2.0 14.2732 -2.51675 1.1765541214115809e-05 0.1736563239942076 0.9848063164898928
2.0 14.1771 -2.4998 -8.14358190463987e-06 0.1736657227734879 0.9848046591417224
2.0 13.893 -2.44972 -3.9123565324568475e-06 0.17365426125501376 0.9848066802843434
2.0 13.7249 -2.42006 2.644824303179299e-05 0.17359979533451406 0.984816282542234
2.0 13.8297 -2.43855 -2.5326189581142063e-05 0.17371523815721712 0.9847959257585124
2.0 13.8907 -2.44931 7.283023908799297e-05 0.17365945282470518 0.984805762138088
2.0 13.7254 -2.42016 -2.0264934780506918e-05 0.17364213710824555 0.9848088178980801
2.0 13.715 -2.41832 2.2777477722336176e-05 0.17360643865415284 0.9848151115508984
2.0 13.709 -2.41726 7.731787929657907e-06 0.17365018773343968 0.984807398550783
1.0 13.6691 -2.41023 0.6951353464588026 0.24765152722549458 0.6748744854908064
2.0 13.7052 -2.41659 -2.335636995916723e-05 0.17365742384659025 0.9848061223395423
1.0 13.6888 -2.4137 -6.145091240251434e-06 0.1736803998498283 0.9848020708092777
2.0 13.6992 -2.41554 -1.3598712040019935e-05 0.17363588124431786 0.9848099210302382
2.0 15.1056 -2.66352 0.0 0.17371429492008228 0.98479609246809
2.0 15.1056 -2.66352 0.0 0.17371429492008228 0.98479609246809
2.0 15.2005 -2.68026 -1.7032525235845196e-05 -0.574707010705138 0.8183592435820943
2.0 15.1056 -2.66352 0.0 0.1737142949200822 0.98479609246809
2.0 14.8208 -2.61331 1.1135160371545819e-05 0.1736677651382245 0.9848042989487317
2.0 14.5456 -2.56479 -5.003881851284341e-05 0.17364617753285486 0.9848081044164619
2.0 14.6317 -2.57996 1.415369542222912e-05 0.173599539335709 0.9848163279221678
2.0 14.7259 -2.59658 3.4603065968580215e-05 0.173702359642429 0.9847981971232889
2.0 14.5591 -2.56717 5.582958485086621e-06 0.17360774637984638 0.9848148812674093
2.0 15.0107 -2.64678 0.0 0.17357534943634498 0.984820591817642
2.0 14.8208 -2.61331 -1.7028050687776818e-05 0.173685613200812 0.9848011512366867
2.0 14.9157 -2.63005 0.0 0.17357534943634878 0.9848205918176414
2.0 14.8208 -2.61331 2.5973634308313634e-05 0.17367769635099467 0.9848025472730978
2.0 14.4753 -2.55238 -4.2735037387095966e-05 0.1737033124866628 0.9847980287373027
2.0 13.9766 -2.46446 2.6211177909972263e-05 0.17359994992316086 0.984816255298241
2.0 14.3896 -2.53727 -2.0322090569076256e-05 0.1736632370492746 0.9848050973083863
2.0 14.0782 -2.48236 3.6969194512806406e-05 0.1736412400105128 0.9848089755891192
2.0 14.2878 -2.51932 -5.585078277881508e-05 0.17362117457429632 0.9848125124205783
2.0 14.1766 -2.49972 -5.502284843531482e-05 0.17369513551679966 0.9847994703848529
2.0 13.954 -2.46046 6.758038589580957e-05 0.17358857875332734 0.9848182577304765
2.0 13.8741 -2.44638 4.620143690209253e-06 0.17362922859387234 0.9848110940462395
2.0 13.857 -2.44336 7.22800266716298e-06 0.17365395504993772 0.9848067342597076
2.0 13.8379 -2.44 7.588910074437906e-06 0.17365240724719072 0.984807007184486
1.0 13.7626 -2.42672 0.6795788626531333 0.3137019082873213 0.663146802881509
2.0 13.8239 -2.43752 -6.502809605156098e-06 0.17364048631166737 0.9848091091532212
1.0 13.7836 -2.43043 6.840744576924544e-06 0.17366081647687692 0.9848055243416279
1.0 13.8107 -2.4352 -5.781829331136616e-05 0.1736623474737605 0.9848052526905753
2.0 15.2005 -2.68026 -1.7035318546974726e-05 -0.5746782182600119 0.8183794628210658
2.0 15.0107 -2.64678 0.0 0.17357534943634495 0.984820591817642
2.0 15.0107 -2.64678 0.0 0.17357534943634495 0.984820591817642
2.0 15.1056 -2.66352 0.0 0.1737142949200822 0.98479609246809
2.0 15.0107 -2.64678 0.0 0.17357534943634495 0.984820591817642
2.0 14.726 -2.59659 -1.7052256683261203e-05 0.17370716450231427 0.984797350072484
2.0 14.4822 -2.55361 -2.0663663991000012e-05 0.17367937487312887 0.9848022513767383
2.0 14.561 -2.5675 4.266419906511481e-05 0.1735395123322172 0.9848269065370129
2.0 14.6323 -2.58006 3.704120562124921e-05 0.17363067588124792 0.9848108381922744
2.0 14.4955 -2.55595 -2.7897646792737266e-05 0.17370042440117575 0.9847985386791416
2.0 14.9157 -2.63005 0.0 0.17357534943634872 0.9848205918176414
2.0 14.726 -2.5966 1.9921985093327407e-05 0.1736750303591013 0.9848030175790892
2.0 14.8208 -2.61331 -8.027945579018117e-06 0.17372108017588683 0.9847948955178816
2.0 14.7262 -2.59662 4.241490072631185e-05 0.17367088951709578 0.9848037471168136
2.0 14.4017 -2.53941 -2.710000568790706e-05 0.17367265914478958 0.9848034355805059
2.0 14.0633 -2.47973 -4.82346442240435e-05 0.17372260390507943 0.9847946255772612
2.0 14.3126 -2.5237 -5.393880725847724e-05 0.17361137239485147 0.9848142405884378
2.0 14.191 -2.50227 -4.5642342801000816e-05 0.1736621431014544 0.9848052893695213
2.0 14.0363 -2.47498 -1.1465689542305297e-05 0.17367404264997272 0.9848031919008758
2.0 13.9987 -2.46834 -5.20827727457348e-06 0.17366934052352725 0.9848040211813704
2.0 13.9685 -2.46302 -4.240333902726165e-06 0.1736841801088087 0.9848014041226538
1.0 13.8535 -2.44274 0.6570821726060024 0.37827772411314764 0.6520344943966944
2.0 13.9431 -2.45854 -3.499985792705443e-05 0.17368370248421058 0.984801487745823
1.0 13.8831 -2.44796 2.8149549742599232e-05 0.17362823768041633 0.9848112683593724
1.0 13.9198 -2.45444 5.391300249625734e-06 0.17362548393723065 0.9848117542446863
2.0 15.2005 -2.68026 -1.7041711624830005e-05 -0.5746494031338772 0.8183996964732199
2.0 15.1056 -2.66352 0.0 0.1737142949200822 0.98479609246809
2.0 14.9157 -2.63005 0.0 0.17357534943634872 0.9848205918176414
2.0 14.9157 -2.63005 0.0 0.17357534943634872 0.9848205918176414
2.0 15.0107 -2.64678 0.0 0.17357534943634495 0.984820591817642
2.0 14.9157 -2.63005 1.744108667877739e-05 0.17359799348587976 0.9848166003644968
2.0 14.6427 -2.5819 -3.562632279710834e-05 0.1737462515951906 0.9847904542527744
2.0 14.4274 -2.54394 1.0767693056521524e-05 0.1736684190320189 0.9848041836400655
2.0 14.5078 -2.55813 2.828992512645412e-06 0.17358927858279372 0.9848181366897657
2.0 14.5706 -2.56918 3.619371763681731e-05 0.17350265475343318 0.9848334008772884
2.0 14.4554 -2.54888 -1.6964191641564785e-05 0.17373951267245388 0.9847916436731957
2.0 14.8208 -2.61331 1.3225245849565652e-06 0.17370676785894154 0.9847974201825728
2.0 14.6503 -2.58324 2.547741088837866e-05 0.1736477297204029 0.9848078316676059
2.0 14.7264 -2.59666 -3.2356482493554604e-05 0.17369741632711003 0.9847990691071681
2.0 14.6573 -2.58447 -2.4349639126260806e-05 0.1736312546810201 0.9848107365402704
2.0 14.3552 -2.53121 6.987767251057145e-06 0.1736306320299808 0.9848108465954467
2.0 14.2272 -2.50864 1.6018228986010656e-05 0.17363761970376748 0.9848096144773498
2.0 14.1376 -2.49285 -5.064001572232912e-06 0.17367111055847456 0.984803709036345
2.0 14.0971 -2.48571 1.488538293110557e-05 0.17365498293487674 0.9848065529231175
1.0 13.9407 -2.45813 0.6284347762926207 0.4403769750769428 0.6412003210917206
2.0 14.0562 -2.47849 3.339099258719254e-05 0.1736413326971076 0.9848089593744637
1.0 13.9787 -2.46483 -2.4975564428450905e-05 0.1736595438125309 0.98480574846974
1.0 14.0251 -2.473 -9.962307415138142e-06 0.1736440720209417 0.9848084768891556
2.0 15.2005 -2.68026 0.0002285072594493695 -0.5748069287754347 0.8182890335426625
2.0 15.1056 -2.66352 0.0 0.1737142949200822 0.98479609246809
2.0 15.0107 -2.64678 1.9507401007188825e-05 0.1735969795495622 0.9848167790562516
2.0 14.8208 -2.61331 -8.110806351958317e-06 0.17369966037338616 0.9847986738010898
2.0 14.8208 -2.61331 2.773959678397967e-05 0.17365338511770442 0.9848068343932616
2.0 14.9157 -2.63005 3.1772535115987444e-05 0.17359607342171182 0.9848169384627122
2.0 14.8377 -2.61628 1.6477128559919623e-06 0.17368688114400713 0.9848009277593887
2.0 14.5762 -2.57017 -5.137324776109396e-05 0.17360766721371468 0.9848148938990523
2.0 14.4219 -2.54297 -1.058631269856358e-05 0.1736895463706175 0.9848004576407847
2.0 14.497 -2.55622 -6.997359399446336e-06 0.1736003762824962 0.9848161804649702
2.0 14.7433 -2.59964 -2.6588308682341532e-05 0.1736426542645073 0.9848087265621881
2.0 14.5864 -2.57198 -2.361179347796216e-06 0.17356044181792699 0.9848232191771226
2.0 14.6759 -2.58776 -6.595266014417364e-05 0.17367677326173298 0.9848027082008047
2.0 14.6199 -2.57788 -2.8088136713456517e-05 0.17366971931826097 0.9848039539943841
2.0 14.3667 -2.53324 -1.0761321674028736e-07 0.17365712500415553 0.9848061753133353
2.0 14.2953 -2.52064 1.8386540199191758e-05 0.173630780339496 0.9848108203003422
2.0 14.2288 -2.50892 2.7793885909975204e-05 0.17361519629323283 0.9848135675566022
1.0 14.0236 -2.47273 0.593662691808854 0.49946701474612776 0.6309495301011461
1.0 14.1704 -2.49862 1.8780102634321693e-06 0.17363258778587384 0.9848105017998405
1.0 14.0697 -2.48086 4.7795143492325754e-05 0.17360819667453325 0.9848148007432873
1.0 14.1258 -2.49076 6.200223157876953e-06 0.1736317195224537 0.984810654865814
1.0 15.2005 -2.68026 -1.6963943331665115e-05 -0.5750048767308692 0.8181499810230044
1.0 15.1056 -2.66352 -3.0036707279739267e-05 0.1736847373024139 0.9848013054042869
1.0 15.0107 -2.64678 -7.704443833906413e-05 0.1736532244670946 0.9848068600981287
1.0 14.9261 -2.63187 8.920388046725423e-06 0.17353694282610468 0.9848273601982207
2.0 14.7452 -2.59998 -2.4188312931946072e-05 0.17363132487612543 0.9848107241681961
2.0 14.7655 -2.60356 3.1682054678641754e-05 0.17359241876051604 0.9848175826746399
1.0 14.8571 -2.61971 -3.4190327451970774e-05 0.17367007580220614 0.9848038909355901
1.0 14.8029 -2.61015 -1.1845702214778043e-05 0.17368316129540234 0.9848015837426921
2.0 14.4936 -2.55562 3.184855893311859e-05 0.17365043452618806 0.9848073545493735
2.0 14.6639 -2.58565 -4.100671581800944e-05 0.17366566106970968 0.9848046692028171
2.0 14.5818 -2.57116 -8.11711661434079e-06 0.17366221850442007 0.9848052770970693
2.0 14.4274 -2.54394 8.353717725953657e-06 0.17365958849294866 0.9848057408721149
1.0 14.3468 -2.52972 1.2162616978202355e-05 0.17365538867153016 0.9848064814152122
1.0 14.1011 -2.48641 0.5532970001091714 0.5548805501796182 0.6212648426416512
1.0 14.2761 -2.51726 -4.3899902136954496e-05 0.1736555362058728 0.9848064544964403
1.0 14.1549 -2.49589 -7.002948673563719e-05 0.1736949658456359 0.9847994993579933
1.0 14.2203 -2.50742 -8.384700280375762e-06 0.17368678133525553 0.984800945328088
1.0 15.1056 -2.66352 0.0 0.1736256218327463 0.98481172994801
1.0 15.2005 -2.68026 -1.2725948969735976e-05 -0.5749794698214706 0.818167836768148
1.0 15.0106 -2.64678 -6.694627934292437e-05 0.17361664889647385 0.9848133095892613
1.0 14.9227 -2.63128 -5.949694423374874e-05 0.17364664945775926 0.9848080206782476
1.0 14.8416 -2.61698 1.537954389305904e-05 0.17372279641416669 0.9847945926788548
1.0 14.6705 -2.58681 3.4383623390011445e-05 0.17364064851636904 0.9848090799746829
1.0 14.7701 -2.60436 3.669010235318091e-05 0.17367586468208882 0.9848028699596509
2.0 14.5353 -2.56297 -9.09511589758322e-06 0.1736907988185898 0.9848002367602472
1.0 14.4559 -2.54896 -1.1630617258166006e-05 0.17365368089184047 0.9848067825606419
1.0 14.1726 -2.49901 0.5077185769856899 0.6059281810903893 0.6124319439285629
1.0 14.3737 -2.53448 -1.7439296584894695e-05 0.17363781122904678 0.984809580684234
1.0 14.2334 -2.50974 1.2867381009902465e-05 0.1736398697699079 0.9848092177984119
1.0 14.3072 -2.52275 7.178720082313941e-06 0.17364074847017974 0.9848090629249824
1.0 15.2005 -2.68026 -1.6973345284846052e-05 -0.5749545703394223 0.8181853346019567
1.0 15.0106 -2.64678 3.0022423120964493e-05 0.17360490461376415 0.9848153817811235
1.0 15.1056 -2.66352 0.0 0.1736256218327463 0.98481172994801
1.0 14.9157 -2.63005 5.525047512571041e-05 0.17370078369400554 0.9847984741516781
1.0 14.8306 -2.61503 2.7403929710415098e-05 0.17369159810387433 0.9848000954493997
1.0 14.7468 -2.60025 -2.3634103196335555e-05 0.17366088010063807 0.9848055128623626
1.0 14.6117 -2.57644 5.245100363084078e-06 0.17363534825972382 0.9848100150827129
1.0 14.2375 -2.51045 0.4571811845037052 0.6525199514619102 0.6043203434271721
1.0 14.4795 -2.55312 3.1533396441007976e-05 0.1736379973703567 0.9848095475140648
1.0 14.305 -2.52236 6.0659649568128815e-05 0.17363101925193947 0.9848107764814211
1.0 14.3879 -2.53697 4.883987982900044e-06 0.17359720078116692 0.9848167402400764
1.0 15.2005 -2.68026 -1.6979730726003664e-05 -0.5749258147444148 0.8182055409566471
1.0 15.1056 -2.66352 0.0 0.17362562183274632 0.9848117299480099
1.0 14.9158 -2.63005 5.2439565053048755e-05 0.17370280152065767 0.9847981183948145
1.0 15.0106 -2.64678 0.0 0.17366410508992197 0.9848049444449986
1.0 14.8316 -2.6152 3.486783620160316e-05 0.17361373793138118 0.9848138244286215
1.0 14.7536 -2.60146 -2.5114182737025334e-05 0.17357952781136654 0.9848198550466277
1.0 14.6587 -2.58473 -4.547794794165023e-06 0.17365716220684763 0.9848061687426528
1.0 14.295 -2.52059 0.40199979370377475 0.6940494412904913 0.5972365853717265
1.0 14.5542 -2.56629 1.1736891458826115e-06 0.17369131331683957 0.984800146058526
1.0 14.3683 -2.53351 2.773578297520692e-05 0.1736305552953933 0.9848108597586339
1.0 14.458 -2.54933 1.585619076756043e-05 0.17364461314448745 0.984808381399388
1.0 15.2005 -2.68026 -5.52874410735183e-05 -0.5749250353550985 0.818206086915294
1.0 15.2005 -2.68026 -1.999002807088274e-05 -0.7246592282086044 0.6891073955288164
1.0 15.1056 -2.66352 -4.3061333055118505e-05 0.1736719474628666 0.984803560518633
1.0 15.0106 -2.64678 3.4062223561054306e-05 0.17364732501200772 0.9848079027688289
1.0 14.8305 -2.61501 -3.3572439646957894e-05 0.17358876676041 0.9848182263379833
1.0 14.9158 -2.63005 0.0 0.17373093060518283 0.9847931578514634
1.0 14.7662 -2.60368 -1.0251838267446448e-05 0.173547384455796 0.9848255202031739
1.0 14.7073 -2.5933 -1.5402441916269385e-05 0.17364620319967192 0.9848081010415699
1.0 14.3447 -2.52936 0.3435138567063646 0.7300584033332448 0.5907731865726747
1.0 14.6112 -2.57635 -1.0040287885277575e-05 0.1737124843745264 0.9847964117885597
1.0 14.4233 -2.54321 -4.350605989893099e-05 0.17361662690694762 0.984813314780358
1.0 14.5191 -2.5601 2.114914768331731e-05 0.1736906399083573 0.9848002646023909
1.0 15.1055 -2.66352 -2.6036442080689767e-05 0.1736759220294266 0.9848028601853938
1.0 15.1055 -2.66351 2.0177083182001137e-06 0.17364876672795634 0.9848076491426072
1.0 15.2005 -2.68026 7.122747831350114e-06 -0.5748924035425202 0.8182290170229668
1.0 15.0106 -2.64677 -1.4380955143484342e-05 0.17369277205056297 0.9847998886731149
1.0 14.9158 -2.63005 -3.511265510694883e-05 0.17364907761437623 0.9848075937008091
1.0 14.7884 -2.6076 -5.083592270742064e-05 0.17359323549752004 0.984817437906748
1.0 14.3862 -2.53668 0.28187824848827 0.7601878026050464 0.5853709574275923
1.0 14.6625 -2.5854 3.859829362281803e-05 0.17371216320608857 0.9847964677355585
1.0 14.4694 -2.55134 -4.410635841052299e-05 0.17359922126571578 0.9848163831042649
1.0 14.5711 -2.56927 1.6736376682693365e-05 0.17367387244975122 0.9848032218408921
1.0 15.0128 -2.64717 -1.4785062487892873e-05 0.17368012886921164 0.984802118507762
1.0 15.0131 -2.64721 8.472392274278127e-05 0.17367151798502792 0.9848036335547473
1.0 15.1078 -2.66392 5.528179151746019e-05 0.17366600151774172 0.9848046084684836
1.0 15.2005 -2.68026 -2.2812554515303976e-05 -0.5748653949245711 0.8182479924801553
1.0 14.9221 -2.63117 -3.3581088958791608e-06 0.17362923422716897 0.9848110930581611
1.0 14.8178 -2.61279 5.434414573974927e-06 0.17362753129010625 0.9848113932873495
1.0 14.419 -2.54245 0.21671884679236444 0.7842340993207285 0.5813861186058655
1.0 14.7115 -2.59403 5.406313245713602e-05 0.1737200697059364 0.9847950723163386
1.0 14.5067 -2.55792 -9.294143066438458e-06 0.1736355262649196 0.9848099836680796
1.0 14.6168 -2.57733 -1.560163421304263e-05 0.1736524951462731 0.9848069915907698
1.0 14.9305 -2.63265 -4.362703014304346e-06 0.17355267826963966 0.9848245873486312
1.0 14.9374 -2.63387 4.088543278897969e-05 0.1735883713520044 0.9848182957580246
1.0 15.0116 -2.64694 -3.5888377230890946e-05 0.17361194912177147 0.9848141397411817
1.0 15.1093 -2.66417 1.1344246087496567e-05 0.17369698435657185 0.9847991457636125
1.0 15.2005 -2.68026 2.2681068552432054e-05 -0.5748108819828202 0.8182862881899595
1.0 14.4425 -2.54661 0.14976379411323007 0.8020452372146315 0.5781818428782901
1.0 14.8447 -2.61753 4.801235121002192e-05 0.1736689408376573 0.98480409050894
1.0 14.7551 -2.60172 5.6106991040467276e-05 0.173691965749749 0.9848000293897201
1.0 14.5331 -2.56258 -5.688338271246592e-05 0.1736351039250373 0.9848100565333512
1.0 14.6612 -2.58516 -1.1110974044742044e-05 0.17362682652318798 0.9848115174935929
1.0 14.8718 -2.6223 0.00010577469810377743 0.17369555112650853 0.9847993929377555
1.0 14.8928 -2.626 9.000271573070688e-05 0.17365812122151442 0.9848059955307569
1.0 14.9417 -2.63462 0.00010774156658716497 0.17362224653309058 0.9848123191250999
1.0 15.0097 -2.64661 -1.227126441048463e-05 0.17367818219317813 0.9848024618569398
1.0 15.1052 -2.66346 -4.2054396482369215e-05 0.1736763779805278 0.9848027792218057
1.0 15.2005 -2.68026 -2.5367039078365374e-05 -0.574821734213238 0.8182786647790585
0.0 14.4569 -2.54914 0.08159218391836005 0.8132814626355374 0.5761214959162984
0.0 14.5593 -2.5672 7.1876781185465056e-09 0.17362977267328714 0.9848109981318358
1.0 14.8051 -2.61053 3.185490713949333e-05 0.17366778716016462 0.9848042946129737
0.0 14.7124 -2.59419 -2.709718339037677e-05 0.17362755392901472 0.9848113889381915
1.0 14.866 -2.62127 2.4182394571551284e-05 0.17364500360987317 0.984808312381927
1.0 14.9347 -2.63338 -1.4658393310229733e-05 0.17367162868110986 0.9848036175686918
0.0 15.0104 -2.64674 -4.372817091863149e-05 0.1737011092460711 0.9847984173091118
0.0 15.1049 -2.6634 2.7788146255147498e-05 0.1736476304734243 0.9848078491049836
0.0 15.2005 -2.68026 7.284407895221108e-05 -0.5748758926243813 0.8182406142285171
0.0 14.4619 -2.55002 0.022236713984686133 0.9573736613143209 0.28799514088396555
0.0 14.564 -2.56803 4.106967967920102e-06 0.1736632841431283 0.9848050892048416
0.0 14.6855 -2.58945 -9.808395913346646e-06 0.17365151216673222 0.9848071649952608
0.0 14.8248 -2.61401 -2.776504443864091e-05 0.17364309549422718 0.9848086487314605
0.0 14.7916 -2.60816 -6.32762951954096e-05 0.17362289067929748 0.9848122094228297
0.0 14.9184 -2.63052 -2.249757286428069e-05 0.1736965449908351 0.9847992230663599
0.0 15.0071 -2.64616 1.994103032529488e-05 0.17365529367077956 0.9848064980403362
0.0 15.1044 -2.66331 -5.882595437158324e-05 0.1736194348740284 0.9848128189526831
0.0 15.2005 -2.68026 -2.0858952667930846e-05 -0.574883906549847 0.8182349867580162
0.0 14.4619 -2.55002 0.0001178527208117051 0.8181545485923118 0.5749983658485011
0.0 14.5674 -2.56863 -1.7574743227638451e-06 0.1736590596977652 0.9848058341530067
0.0 14.6735 -2.58733 -7.710778767991345e-06 0.1736461100577019 0.984808117555076
0.0 14.7787 -2.60589 2.413122148273539e-05 0.1736772741784128 0.9848026217733382
0.0 14.8998 -2.62723 -1.0386014329331257e-05 0.17363047469531362 0.9848108743049148
0.0 14.8853 -2.62469 1.553230141013357e-05 0.17360373481885344 0.9848155883289484
0.0 15.0041 -2.64562 2.837741589271195e-05 0.17369000228785245 0.9848003768784657
0.0 15.1034 -2.66315 2.264776009344805e-05 0.1736775709691711 0.9848025694672651
0.0 15.2005 -2.68026 -6.734228633332906e-05 -0.5748819540308208 0.8182363560700061
0.0 14.4619 -2.55002 -1.400542145846179e-05 0.8181980705959038 0.574936446119907
0.0 14.5674 -2.56863 -8.647615321814447e-06 0.17366211735054068 0.9848052949301938
0.0 14.6729 -2.58723 4.880040807295928e-06 0.17362198703681728 0.9848123707557559
0.0 14.7785 -2.60584 7.719828092414387e-05 0.17360114679351452 0.9848160416404691
0.0 14.884 -2.62444 6.140136857885474e-05 0.17364270759916095 0.9848087156029358
0.0 14.9983 -2.6446 2.948571034980893e-05 0.17361034889634544 0.9848144220545727
0.0 14.9895 -2.64305 -7.16376298576731e-06 0.17366142528736575 0.9848054169813656
0.0 15.1018 -2.66285 7.620222955862446e-05 0.1737236770771822 0.9847944344968664
0.0 15.2005 -2.68026 -1.175992674080574e-05 -0.5747890987583514 0.8183015897639857
0.0 14.4619 -2.55002 0.57685316771247 0.6684046966039728 0.46954827702573904
-0.0 14.5674 -2.56863 0.5547001965858152 0.14449032090505362 0.8194084690021288
-0.0 14.6729 -2.58723 0.7071067813794754 0.12273928833549277 0.6963727929967221
-0.0 14.7785 -2.60584 0.7071067813794755 0.12275555546583646 0.6963699256353858
-0.0 14.884 -2.62444 0.7071067815185234 0.12281449927538253 0.6963595323525431
-0.0 14.9895 -2.64305 0.7071005088934682 0.12278353193465859 0.6963713625704671
0.0 15.099 -2.66235 4.639695606885505e-07 0.1736700807069233 0.9848038906640425
-0.0 15.095 -2.66165 0.8320408795984905 0.09633770277663183 0.5462847441588421
0.0 15.2005 -2.68026 0.00033736913848404906 -0.5749796791458484 0.8181676202046874
-0.0 15.2005 -2.68026 0.577894530360729 -0.46923544662401173 0.6677244996334315
-0.0 14.4781 -2.45659 0.7072242693091633 0.697174568772982 -0.11739443579798298
-0.0 14.5792 -2.47367 1.0 0.0 0.0
-0.0 14.692 -2.48415 1.0 0.0 0.0
-0.0 14.7983 -2.50092 1.0 0.0 0.0
-0.0 14.9043 -2.52065 1.0 0.0 0.0
-0.0 15.0104 -2.54141 1.0 0.0 0.0
-0.0 15.1169 -2.56318 1.0 0.0 0.0
-0.0 15.2178 -2.58029 0.7072161111809862 -0.6971589059025739 0.11753651350439699
-0.0 14.4936 -2.36303 0.7071597574861113 0.6979736286450968 -0.11295083491582047
-0.0 14.5917 -2.37901 1.0 0.0 0.0
-0.0 14.6973 -2.39071 1.0 0.0 0.0
-0.0 14.8108 -2.40653 1.0 0.0 0.0
-0.0 14.9275 -2.42165 1.0 0.0 0.0
-0.0 15.0339 -2.44692 1.0 0.0 0.0
-0.0 15.1346 -2.46398 1.0 0.0 0.0
-0.0 15.2344 -2.48022 0.7074573246104451 -0.697572413683847 0.11356434969797101
-0.0 14.5086 -2.26936 0.7074021093829628 0.6983901832103538 -0.10878146733677993
-0.0 14.605 -2.28442 1.0 0.0 0.0
-0.0 14.7052 -2.29698 1.0 0.0 0.0
-0.0 14.8175 -2.30608 1.0 0.0 0.0
-0.0 14.9428 -2.32523 1.0 0.0 0.0
-0.0 15.0513 -2.34898 1.0 0.0 0.0
-0.0 15.1505 -2.36448 1.0 0.0 0.0
-0.0 15.2504 -2.38007 0.7074204862380995 -0.6982963738971312 0.10926312210791242
-0.0 14.523 -2.17556 0.7074587414634447 0.6990566269790761 -0.10402865664611695
-0.0 14.6184 -2.18985 1.0 0.0 0.0
-0.0 14.7157 -2.20303 1.0 0.0 0.0
-0.0 14.83 -2.20979 1.0 0.0 0.0
-0.0 14.9585 -2.22868 1.0 0.0 0.0
-0.0 15.0664 -2.25004 1.0 0.0 0.0
-0.0 15.1657 -2.2649 1.0 0.0 0.0
-0.0 15.2657 -2.27983 0.7073098777246526 -0.6991228640986789 0.1045942530333156
-0.0 14.5367 -2.08166 0.7072055858044983 0.6999245976298654 -0.09982893888841742
-0.0 14.6316 -2.09525 1.0 0.0 0.0
-0.0 14.7277 -2.10854 1.0 0.0 0.0
-0.0 14.8457 -2.11648 1.0 0.0 0.0
-0.0 14.9715 -2.13164 1.0 0.0 0.0
-0.0 15.0809 -2.15102 1.0 0.0 0.0
-0.0 15.1803 -2.16523 1.0 0.0 0.0
-0.0 15.2803 -2.1795 0.7073810530704251 -0.6996928911425772 0.10020930017477465
-0.0 14.5499 -1.98765 0.7070042673687932 0.7007843247127555 -0.09511201900497869
-0.0 14.6446 -2.00059 1.0 0.0 0.0
-0.0 14.7401 -2.01339 1.0 0.0 0.0
-0.0 14.8588 -2.02277 1.0 0.0 0.0
-0.0 14.9841 -2.03497 1.0 0.0 0.0
-0.0 15.0948 -2.05189 1.0 0.0 0.0
-0.0 15.1943 -2.06547 1.0 0.0 0.0
-0.0 15.2943 -2.07907 0.7074340974726989 -0.7002340422548504 0.09596501341853828
-0.0 14.5624 -1.89354 0.7070494267175219 0.7013469627559925 -0.09051820817585952
-0.0 14.657 -1.90585 1.0 0.0 0.0
-0.0 14.7523 -1.91811 1.0 0.0 0.0
-0.0 14.8709 -1.92782 1.0 0.0 0.0
-0.0 14.9965 -1.93852 1.0 0.0 0.0
-0.0 15.1081 -1.95266 1.0 0.0 0.0
-0.0 15.2076 -1.96563 1.0 0.0 0.0
-0.0 15.3077 -1.97856 0.7072012531444033 -0.7011132624193324 0.09114044552615438
-0.0 14.5744 -1.79935 0.7074146179974381 0.701552195626255 -0.08595972926620644
-0.0 14.669 -1.81103 1.0 0.0 0.0
-0.0 14.7642 -1.82272 1.0 0.0 0.0
-0.0 14.8829 -1.83215 1.0 0.0 0.0
-0.0 15.009 -1.8419 1.0 0.0 0.0
-0.0 15.1209 -1.85332 1.0 0.0 0.0
-0.0 15.2203 -1.8657 1.0 0.0 0.0
-0.0 15.3203 -1.87796 0.7072127675776833 -0.7016998795485662 0.08641400590553323
-0.0 14.5857 -1.70506 0.7072507413897807 0.7022500011986321 -0.08149432262511615
-0.0 14.6803 -1.71613 1.0 0.0 0.0
-0.0 14.7756 -1.72723 1.0 0.0 0.0
-0.0 14.8948 -1.73633 1.0 0.0 0.0
-0.0 15.0221 -1.74474 1.0 0.0 0.0
-0.0 15.1333 -1.75384 1.0 0.0 0.0
-0.0 15.2325 -1.76569 1.0 0.0 0.0
-0.0 15.3323 -1.77727 0.7073367022083734 -0.7020822387503988 0.08219075215747175
-0.0 14.5964 -1.6107 0.5543152055436029 0.8273817145243672 -0.0904110135651162
-0.0 14.6911 -1.62115 1.0 0.0 0.0
-0.0 14.7864 -1.63165 1.0 0.0 0.0
-0.0 14.9066 -1.64063 1.0 0.0 0.0
-0.0 15.0356 -1.64706 1.0 0.0 0.0
-0.0 15.1455 -1.65422 1.0 0.0 0.0
-0.0 15.2442 -1.66562 1.0 0.0 0.0
-0.0 15.3437 -1.67649 0.7071878192323445 -0.7027583665630512 0.07756330675669376
-0.0 14.6065 -1.51626 0.7069369165542448 0.7035886415972713 -0.07213334477260352
-0.0 14.7013 -1.5261 1.0 0.0 0.0
-0.0 14.7966 -1.53599 1.0 0.0 0.0
-0.0 14.9177 -1.54544 1.0 0.0 0.0
-0.0 15.049 -1.54996 1.0 0.0 0.0
-0.0 15.1577 -1.55452 1.0 0.0 0.0
-0.0 15.2556 -1.56549 1.0 0.0 0.0
-0.0 15.3544 -1.57562 0.7071213411037696 -0.7033218238966653 0.07292339121485424
-0.0 14.616 -1.42176 0.7070773100745555 0.7038679358466426 -0.067908809919756
-0.0 14.7108 -1.43098 1.0 0.0 0.0
-0.0 14.8062 -1.44026 1.0 0.0 0.0
-0.0 14.9277 -1.45066 1.0 0.0 0.0
-0.0 15.0609 -1.4546 1.0 0.0 0.0
-0.0 15.1696 -1.45541 1.0 0.0 0.0
-0.0 15.2667 -1.46527 0.9999999999897495 -4.2454364793363194e-06 -1.5739237543672215e-06
-0.0 14.6249 -1.32719 0.7069426777546688 0.7044372071513795 -0.06324769995678069
-0.0 14.7198 -1.3358 1.0 0.0 0.0
-0.0 14.8153 -1.34446 1.0 0.0 0.0
-0.0 14.9362 -1.35545 1.0 0.0 0.0
-0.0 15.0695 -1.35849 1.0 0.0 0.0
-0.0 15.1785 -1.3592 1.0 0.0 0.0
-0.0 15.2757 -1.36789 0.9999999999724902 -7.375054787905738e-06 -7.926215567292167e-07
-0.0 14.6332 -1.23256 0.8320100075685655 0.5527895918436667 -0.04672274023500623
-0.0 14.7281 -1.24056 1.0 0.0 0.0
-0.0 14.8236 -1.24861 1.0 0.0 0.0
-0.0 14.9444 -1.25987 1.0 0.0 0.0
-0.0 15.0778 -1.26222 1.0 0.0 0.0
-0.0 15.1869 -1.26236 1.0 0.0 0.0
-0.0 15.2841 -1.27043 0.9999999999884697 -3.102019950129391e-06 3.6658137936678047e-06
-0.0 14.6409 -1.13789 0.7070784530393593 0.704950447095159 -0.055542131646184496
-0.0 14.7358 -1.14527 1.0 0.0 0.0
-0.0 14.8314 -1.1527 1.0 0.0 0.0
-0.0 14.9523 -1.1638 1.0 0.0 0.0
-0.0 15.0855 -1.16587 1.0 0.0 0.0
-0.0 15.1946 -1.16547 1.0 0.0 0.0
-0.0 15.2919 -1.17292 0.9999999999928015 -3.5144089863551757e-06 -1.430307526727945e-06
-0.0 14.6479 -1.04317 0.7070685035555168 0.7053313255988901 -0.050614744972930004
-0.0 14.7429 -1.04993 1.0 0.0 0.0
-0.0 14.8386 -1.05674 1.0 0.0 0.0
-0.0 14.9597 -1.06707 1.0 0.0 0.0
-0.0 15.0925 -1.06947 1.0 0.0 0.0
-0.0 15.2017 -1.06851 1.0 0.0 0.0
-0.0 15.299 -1.07534 0.9999999999971195 -1.5742557605590868e-06 1.8118662948431113e-06
-0.0 14.6543 -0.948408 0.7069645941080331 0.7057235366826523 -0.04642577355083047
-0.0 14.7494 -0.954561 1.0 0.0 0.0
-0.0 14.8451 -0.96075 1.0 0.0 0.0
-0.0 14.9663 -0.969608 1.0 0.0 0.0
-0.0 15.0989 -0.973039 1.0 0.0 0.0
-0.0 15.2082 -0.971515 1.0 0.0 0.0
-0.0 15.3056 -0.977718 0.9999999999942388 -3.3874927598424406e-06 2.1709949583723436e-07
-0.0 14.6602 -0.853616 0.7071166516729673 0.7058500309496467 -0.04197350039244275
-0.0 14.7553 -0.859153 1.0 0.0 0.0
-0.0 14.851 -0.864721 1.0 0.0 0.0
-0.0 14.9721 -0.87297 1.0 0.0 0.0
-0.0 15.1046 -0.876601 1.0 0.0 0.0
-0.0 15.214 -0.874477 1.0 0.0 0.0
-0.0 15.3115 -0.880047 0.9999999999971191 -1.7897106194077255e-06 -1.5996251715210217e-06
-0.0 14.6654 -0.758798 0.7073314628857829 0.7059115635071636 -0.03702790999678701
-0.0 14.7605 -0.763719 1.0 0.0 0.0
-0.0 14.8562 -0.768665 1.0 0.0 0.0
-0.0 14.9769 -0.776675 1.0 0.0 0.0
-0.0 15.1096 -0.780196 1.0 0.0 0.0
-0.0 15.2191 -0.777412 1.0 0.0 0.0
-0.0 15.3167 -0.782338 0.999999999992825 -3.299401717457311e-06 1.8612055563332847e-06
-0.0 14.67 -0.663958 0.7071278687925397 0.7063227019786721 -0.03283927292844072
-0.0 14.7651 -0.668265 1.0 0.0 0.0
-0.0 14.8609 -0.67259 1.0 0.0 0.0
-0.0 14.981 -0.68048 1.0 0.0 0.0
-0.0 15.1142 -0.684328 1.0 0.0 0.0
-0.0 15.2236 -0.680333 1.0 0.0 0.0
-0.0 15.3213 -0.684595 0.9999999999971247 -1.7666405965774357e-06 -1.6215714325527233e-06
-0.0 14.674 -0.569104 0.707297110658434 0.7063753033966963 -0.027653715942998838
-0.0 14.7691 -0.572796 1.0 0.0 0.0
-0.0 14.8649 -0.576499 1.0 0.0 0.0
-0.0 14.9842 -0.584251 1.0 0.0 0.0
-0.0 15.1174 -0.589069 1.0 0.0 0.0
-0.0 15.2272 -0.58326 1.0 0.0 0.0
-0.0 15.3253 -0.586823 0.9999999999928418 -3.317827415178709e-06 1.818911604406853e-06
-0.0 14.6773 -0.474241 0.7070551491003144 0.7067683165010161 -0.023485376749197245
-0.0 14.7725 -0.477316 1.0 0.0 0.0
-0.0 14.8683 -0.480399 1.0 0.0 0.0
-0.0 14.985 -0.486533 1.0 0.0 0.0
-0.0 15.1182 -0.494223 1.0 0.0 0.0
-0.0 15.2299 -0.486229 1.0 0.0 0.0
-0.0 15.3285 -0.489028 0.9999999999971332 -1.7331777803409535e-06 -1.652208201607961e-06
-0.0 14.6801 -0.379375 0.706917505941413 0.7070438460096489 -0.01888490438038651
-0.0 14.7753 -0.381835 1.0 0.0 0.0
-0.0 14.8711 -0.384295 1.0 0.0 0.0
-0.0 14.9853 -0.390098 1.0 0.0 0.0
-0.0 15.1144 -0.398854 1.0 0.0 0.0
-0.0 15.2313 -0.389301 1.0 0.0 0.0
-0.0 15.3308 -0.391217 0.9999999999929404 -3.315005227645052e-06 1.769157685054867e-06
-0.0 14.6822 -0.284512 0.7998711418782791 0.6000491038464737 -0.01213381075267254
-0.0 14.7774 -0.286357 1.0 0.0 0.0
-0.0 14.8732 -0.288196 1.0 0.0 0.0
-0.0 14.9796 -0.295378 1.0 0.0 0.0
-0.0 15.1024 -0.300363 1.0 0.0 0.0
-0.0 15.2305 -0.293378 1.0 0.0 0.0
-0.0 15.3322 -0.293398 0.9999999999971658 -1.6760640156711634e-06 -1.6909041868409008e-06
-0.0 14.6838 -0.189658 0.5547801845561204 0.8319155273692734 -0.011640538895627509
-0.0 14.7789 -0.190888 1.0 0.0 0.0
-0.0 14.878 -0.193509 1.0 0.0 0.0
-0.0 14.9864 -0.199559 1.0 0.0 0.0
-0.0 15.102 -0.200791 1.0 0.0 0.0
-0.0 15.2263 -0.199046 1.0 0.0 0.0
-0.0 15.3323 -0.195583 0.999999999995007 -2.7990201533087375e-06 1.466802596585227e-06
-0.0 14.6847 -0.094819 0.7071590670457142 0.7070345418658571 -0.005311356095449746
-0.0 14.7826 -0.095408 1.0 0.0 0.0
-0.0 14.8928 -0.101468 1.0 0.0 0.0
-0.0 15.0021 -0.105178 1.0 0.0 0.0
-0.0 15.1106 -0.106955 1.0 0.0 0.0
-0.0 15.2188 -0.105866 1.0 0.0 0.0
-0.0 15.3309 -0.097811 0.9999999999972577 -1.5663770040576448e-06 -1.7409842969994255e-06
-0.0 14.685 -0.0 0.6661977642477999 0.6661963648204464 -0.3352058209686338
-0.0 14.7921 0.0 0.6000000000000001 0.0 -0.8
-0.0 14.8993 0.0 0.7071067811865475 0.0 -0.7071067811865475
-0.0 15.0064 0.0 0.8320502943378436 0.0 -0.5547001962252291
-0.0 15.1136 0.0 0.7071067811865475 0.0 -0.7071067811865475
-0.0 15.2207 0.0 0.7071067811865475 0.0 -0.7071067811865475
-0.0 15.3279 0.0 0.5547016291146436 -2.330672765507598e-05 -0.8320493387500268
5.0 17.843599 -0.479237 -0.5371338280651897 -0.639380460507313 0.5501635006700202
5.0 17.8459 -0.383404 -0.7022607760584202 -0.7117629800567422 0.014941975457450588
5.0 17.8477 -0.287563 -0.7022747276700345 -0.7118186921119543 0.011151521690144398
5.0 17.849001 -0.191716 -0.7020738653311925 -0.7120667217936398 0.007298721324830496
5.0 17.849701 -0.095861 -0.7016818481193321 -0.7124823714785512 0.0033844278893272817
5.0 17.85 0.0 -0.3985225711832084 -0.8216957194822139 -0.4074259501334341
5.0 17.742701 -0.497019 -0.8320693750018272 -0.09631470277503873 0.5462453965146297
5.0 17.741501 -0.381192 -1.0 0.0 0.0
5.0 17.7463 -0.285877 -1.0 0.0 0.0
5.0 17.749901 -0.190636 -1.0 0.0 0.0
5.0 17.7514 -0.096741 -1.0 0.0 0.0
5.0 17.7514 0.0 -0.6000000000000001 0.0 -0.8
5.0 17.641899 -0.514801 -0.5636382964912886 -0.048477058421818174 0.8245979902565649
5.0 17.641899 -0.388938 -1.0 0.0 0.0
5.0 17.6476 -0.290003 -1.0 0.0 0.0
5.0 17.6534 -0.192288 -1.0 0.0 0.0
5.0 17.652901 -0.097495 -1.0 0.0 0.0
5.0 17.652901 0.0 -0.7071067811865475 0.0 -0.7071067811865475
5.0 17.542 -0.497191 -0.7137754836960908 0.12185676113473376 0.6896923144708544
5.0 17.5532 -0.384363 -1.0 0.0 0.0
5.0 17.559601 -0.286786 -1.0 0.0 0.0
5.0 17.554701 -0.194284 -1.0 0.0 0.0
5.0 17.5543 -0.097957 -1.0 0.0 0.0
5.0 17.5543 0.0 -0.7071067811865475 0.0 -0.7071067811865475
5.0 17.442101 -0.47958 -0.7133329275436173 0.12165441578199965 0.6901857268900835
5.0 17.4597 -0.379714 -1.0 0.0 0.0
5.0 17.457701 -0.279347 -1.0 0.0 0.0
5.0 17.455999 -0.195546 -1.0 0.0 0.0
5.0 17.455799 -0.098221 -1.0 0.0 0.0
5.0 17.455799 0.0 -0.7071067811865475 0.0 -0.7071067811865475
5.0 17.3423 -0.46197 -0.8351207770828536 0.09553689706518255 0.5417065524651585
5.0 17.3599 -0.362108 -1.0 0.0 0.0
5.0 17.3619 -0.273357 -1.0 0.0 0.0
5.0 17.3573 -0.196259 -1.0 0.0 0.0
5.0 17.357201 -0.09837 -1.0 0.0 0.0
5.0 17.357201 0.0 -0.7071067811865475 0.0 -0.7071067811865475
5.0 17.242399 -0.44436 -0.7138669372809239 0.12119001004001581 0.6897151421591775
5.0 17.26 -0.344504 -1.0 0.0 0.0
5.0 17.2624 -0.264179 -1.0 0.0 0.0
5.0 17.259501 -0.18736 -1.0 0.0 0.0
5.0 17.2586 -0.098454 -1.0 0.0 0.0
5.0 17.2586 0.0 -0.7071067811865475 0.0 -0.7071067811865475
5.0 17.1425 -0.42675 -0.7140528539788439 0.12156703760593637 0.689456290922336
5.0 17.1583 -0.340981 -1.0 0.0 0.0
5.0 17.166901 -0.269863 -1.0 0.0 0.0
5.0 17.1621 -0.192098 -1.0 0.0 0.0
5.0 17.160101 -0.0985 -1.0 0.0 0.0
5.0 17.160101 0.0 -0.7071067811865475 0.0 -0.7071067811865475
5.0 17.042601 -0.40914 -0.7140437555658393 0.12157139451437675 0.6894649455724792
5.0 17.0625 -0.328766 -1.0 0.0 0.0
5.0 17.072701 -0.260083 -1.0 0.0 0.0
5.0 17.0725 -0.186776 -1.0 0.0 0.0
5.0 17.061501 -0.098526 -1.0 0.0 0.0
5.0 17.061501 0.0 -0.7071067811865475 0.0 -0.7071067811865475
5.0 16.9692 -0.311392 -1.0 0.0 0.0
5.0 16.942801 -0.39153 -0.7140900710392569 0.12156460762846029 0.6894181725304951
